# .PCD v0.7 - Point Cloud Data file format
VERSION 0.7
FIELDS x y z
SIZE 4 4 4
TYPE F F F
COUNT 1 1 1
WIDTH 1405
HEIGHT 1
VIEWPOINT 0 0 0 1 0 0 0
POINTS 1405
DATA ascii
-0.006333 0.0155945 0.006507
-0.006263 0.0145815 0.0065230001
-0.0062500001 0.0142085 0.0065239999
-0.0062500001 0.0132105 0.0065279999
-0.0062810001 0.0122105 0.0065330002
-0.00642 0.0112115 0.00654
-0.0098599996 -0.0287975 0.006763
-0.009447 -0.0297265 0.0067699999
-0.0089349998 -0.0307115 0.0067810002
-0.0083879996 -0.031716499 0.0067889998
-0.0078130001 -0.0327265 0.0068009999
-0.0071149999 -0.034089498 0.0068120002
-0.0066430001 -0.0352575 0.006819
-0.0064210002 -0.0363365 0.006823
-0.0065910001 -0.037334502 0.0068239998
-0.0071379999 -0.0381875 0.0068319999
-0.0079450002 -0.039022502 0.0068279998
-0.0087989997 -0.0398435 0.0068359999
-0.0095570004 -0.040687501 0.0068310001
-0.010193 -0.0415265 0.0068359999
-0.010728 -0.042414501 0.0068350001
-0.011169 -0.043327499 0.0068359999
-0.011526 -0.044262499 0.0068419999
-0.0061570001 -0.068216503 0.0070159999
-0.0052499999 -0.068533503 0.0070310002
-0.0042519998 -0.068784498 0.0070329998
-0.0032210001 -0.069066502 0.0070389998
-0.002476 -0.069702499 0.0070469999
-0.001914 -0.070775501 0.0070549999
-0.001372 -0.071898498 0.007063
-0.000764 -0.072756499 0.0070759999
-0.000512 -0.072998501 0.0070770001
0.000352 -0.073640503 0.0070850002
0.00103 -0.073974498 0.007094
0.0020290001 -0.0742945 0.0071009998
0.0030400001 -0.0744325 0.0071080001
0.0040480001 -0.074446499 0.0071149999
0.005043 -0.074332498 0.0071169999
0.0060390001 -0.074169502 0.007123
0.0070420001 -0.073900498 0.0071240002
0.0079680001 -0.073539503 0.0071319998
0.0082719997 -0.073408499 0.0071319998
0.0091859996 -0.072986498 0.0071370001
0.010073 -0.072517499 0.0071439999
0.010971 -0.072072499 0.0078379996
0.011625 -0.071503498 0.0078370003
0.012292 -0.070770502 0.0078370003
0.012866 -0.069952503 0.0078389999
0.013348 -0.069050498 0.0078389999
0.013577 -0.068634503 0.007855
0.014271 -0.067840502 0.0078509999
0.015171 -0.067374498 0.0078819999
0.016186999 -0.067176498 0.0078699999
0.017336 -0.067165501 0.0078699999
0.018480999 -0.067204498 0.0078699999
0.019738 -0.067339502 0.007894
0.020017 -0.067383498 0.0078980001
0.021015 -0.067530498 0.0078999996
0.022022 -0.067718498 0.0078999996
0.023021 -0.067899503 0.0079119997
0.024025001 -0.068104498 0.0079159997
0.025016 -0.068345502 0.0079150004
0.026019 -0.068636499 0.0079279998
0.027027 -0.068935499 0.0079309996
0.02744 -0.069059499 0.0079309996
0.02857 -0.069362499 0.0079450002
0.029620999 -0.069509499 0.0079460004
0.03066 -0.069514498 0.0079450002
0.031659 -0.069330499 0.0079460004
0.032575 -0.068976499 0.0079460004
0.033201002 -0.068611503 0.0079450002
0.034005001 -0.067984499 0.0079460004
0.034657001 -0.067208499 0.0079429997
0.035138998 -0.066087499 0.0079319999
0.035500001 -0.064687498 0.0079290001
0.036006998 -0.063499503 0.0079309996
0.036747999 -0.062808499 0.0079309996
0.037524998 -0.062151499 0.0079399999
0.038298 -0.061460499 0.0079309996
0.038996 -0.060739499 0.0079309996
0.039639 -0.059979498 0.0079300003
0.040212002 -0.059134498 0.0079290001
0.040685002 -0.058215499 0.007917
0.040902998 -0.057706501 0.0079150004
0.041235998 -0.056752499 0.0079150004
0.041480999 -0.055740502 0.007913
0.041551001 -0.055372499 0.0079020001
0.041685 -0.048168499 0.0078689996
0.041800998 -0.047169499 0.0078640003
0.041825 -0.046752501 0.0078539997
0.041832 -0.045743499 0.0078530004
0.041790999 -0.044754501 0.0078389999
0.041712999 -0.043752499 0.0078389999
0.041607 -0.0427485 0.0078330003
0.041497 -0.041945498 0.007824
0.041281998 -0.0407525 0.0078180004
0.041095 -0.039982501 0.0078079998
0.040762998 -0.039022502 0.0078070001
0.040350001 -0.0381185 0.007793
0.039783999 -0.0372255 0.0077780001
0.039142001 -0.036381502 0.0077769998
0.038383 -0.035499498 0.0077740001
0.037595 -0.0346945 0.007762
0.036789 -0.0338635 0.0077470001
0.036052998 -0.0330275 0.0077439998
0.035673998 -0.0321225 0.0077320002
0.035624001 0.0019904999 0.0075309998
0.035286002 0.0029325001 0.007518
0.034958001 0.0038805001 0.007516
0.034619998 0.0048274999 0.0075030001
0.034272 0.0057655 0.0075010001
0.033938002 0.0067075002 0.007487
0.03359 0.0076525002 0.007485
0.033257 0.0085974997 0.0074720001
0.032931 0.0095434999 0.0074700001
0.032628998 0.0105055 0.0074570002
0.032366 0.0114715 0.0074550002
0.034974001 0.0291945 0.0073589999
0.034837 0.030212499 0.0073540001
0.034772001 0.031211499 0.0073449998
0.034743998 0.0317895 0.0073449998
0.034703001 0.0328045 0.007338
0.034554999 0.0337945 0.0073310002
0.034347001 0.034766499 0.0073230001
0.03407 0.035735499 0.0073210001
0.033759002 0.036734499 0.007313
0.033457998 0.037719499 0.0073060002
0.033137999 0.038695499 0.0072980002
0.032644998 0.039864499 0.0072849998
0.032161999 0.040787499 0.0072840001
0.031626999 0.0416435 0.0072750002
0.031009 0.0424405 0.0072619999
0.030327 0.043171499 0.0072590001
0.029607 0.0438505 0.007247
0.028837999 0.0444865 0.0072389999
0.028001999 0.045061499 0.0072300001
0.027127 0.045557499 0.0072229998
0.026213 0.045954499 0.007216
0.025241001 0.046261501 0.0072079999
0.024226001 0.0464685 0.0072059999
0.023260999 0.046558499 0.0071990001
0.022227 0.0465855 0.0071919998
0.021207999 0.046595499 0.007183
0.020017 0.0466175 0.0071769999
0.019019 0.0466405 0.0071700001
0.01801 0.0466865 0.0071669999
0.017023001 0.0466795 0.0071609998
0.016028 0.046532501 0.0071550002
0.015148 0.046372499 0.0071530002
0.014173 0.0461905 0.0071470002
0.013203 0.046013501 0.0071439999
0.012058 0.0458415 0.0071390001
0.011227 0.0457335 0.0071370001
0.010222 0.0456095 0.0071299998
0.0090589998 0.0454855 0.0071220002
0.0080610001 0.045458499 0.0071149999
0.0070460001 0.045642499 0.0071080001
0.0064790002 0.045658499 0.0071069999
0.006056 0.045681499 0.0071069999
0.005043 0.0458095 0.0071
0.00404 0.045945499 0.007094
0.00075200002 0.046131499 0.007069
-0.000224 0.0459105 0.007063
-0.0012000001 0.045704499 0.0070620002
-0.002177 0.045494501 0.0070549999
-0.0025760001 0.0453845 0.0070600002
-0.003547 0.0450675 0.0070529999
-0.0044829999 0.0446725 0.0070469999
-0.0053559998 0.044195499 0.0070460001
-0.00618 0.043614499 0.0070400001
-0.0069309999 0.042946499 0.0070469999
-0.0076290001 0.042165499 0.0070460001
-0.0081219999 0.0415475 0.0070460001
-0.0086669996 0.0406795 0.0070480001
-0.0091399997 0.039747499 0.0070529999
-0.0095269997 0.038757499 0.0070549999
-0.0096349996 0.038440499 0.0070600002
-0.0099499999 0.0374755 0.0070620002
-0.010239 0.036472499 0.007063
-0.010519 0.0354915 0.0070699998
-0.010603 0.035170499 0.0070710001
-0.010827 0.034192499 0.0070770001
-0.01096 0.0331905 0.0070830001
-0.010999 0.0322075 0.0070859999
-0.010914 0.031220499 0.007094
-0.010813 0.030212499 0.0070989998
-0.010827 0.029213499 0.0071009998
-0.010874 0.027987501 0.0071069999
-0.010852 0.027215499 0.0071089999
-0.010726 0.026223499 0.0071169999
-0.010658 0.0258215 0.007123
-0.010441 0.0248455 0.0071299998
-0.01017 0.023873501 0.0071390001
-0.0098369997 0.022923499 0.0071450002
-0.0094729997 0.021993499 0.0071550002
-0.0090669999 0.0210585 0.0071609998
-0.0086899996 0.0202865 0.0071689999
-0.0082409997 0.019397501 0.0071780002
-0.0077760001 0.018513501 0.007185
-0.007303 0.017630501 0.0071990001
-0.0068390002 0.0167425 0.0072010001
-0.0064750002 0.0158055 0.0072079999
-0.0063649998 0.0145625 0.007222
-0.0063590002 0.0142175 0.007222
-0.006358 0.0132145 0.0072289999
-0.0063820002 0.0122165 0.0072360002
-0.0064980001 0.0112175 0.0072380002
-0.0098989997 -0.0287965 0.0074570002
-0.0095039997 -0.0296965 0.0074700001
-0.0090309996 -0.0306895 0.0074809999
-0.008502 -0.0317095 0.007487
-0.0078600002 -0.032879502 0.0075010001
-0.0072880001 -0.034041502 0.0075110001
-0.0068160002 -0.035210501 0.007516
-0.0066140001 -0.036282498 0.007518
-0.0067540002 -0.0372555 0.0075309998
-0.0073040002 -0.038149498 0.0075320001
-0.0080620004 -0.038990501 0.0075320001
-0.0088830004 -0.039830498 0.0075329999
-0.0095950002 -0.0406725 0.0075309998
-0.010201 -0.041525502 0.0075329999
-0.010728 -0.0424155 0.0075329999
-0.011131 -0.043343499 0.0075329999
-0.011479 -0.044271499 0.0075440002
-0.011789 -0.045217499 0.0075480002
-0.01237 -0.048154499 0.007559
-0.012478 -0.049160499 0.0075639999
-0.0043279999 -0.068882503 0.0077320002
-0.0032899999 -0.069153503 0.0077419998
-0.002693 -0.069445498 0.0077459998
-0.001867 -0.070726499 0.0077490001
-0.001348 -0.071835503 0.0077630002
-0.00074400002 -0.072731502 0.0077760001
0.000356 -0.073624499 0.0077860001
0.001282 -0.074072503 0.007793
0.002022 -0.074281499 0.0078019998
0.003033 -0.074447498 0.0078070001
0.0040469998 -0.074492499 0.0078079998
0.0050360002 -0.074387498 0.0078170002
0.0060390001 -0.074231498 0.0078229997
0.0070210001 -0.073978499 0.007824
0.0079950001 -0.073631503 0.0078339996
0.0089189997 -0.073243499 0.0078339996
0.010006 -0.072694503 0.0078379996
0.032976002 -0.068969503 0.0086470004
0.033286002 -0.068770498 0.0086470004
0.034091 -0.068145499 0.0086449999
0.034766 -0.067277499 0.0086359996
0.035186 -0.066200502 0.0086319996
0.035526998 -0.064781502 0.0086270003
0.036082 -0.063669503 0.008626
0.036855999 -0.062971503 0.0086289998
0.037625998 -0.062335499 0.0086310003
0.038444001 -0.061598498 0.0086289998
0.039127 -0.060874499 0.0086279996
0.039732002 -0.060071498 0.008626
0.040282 -0.059201501 0.0086249998
0.040739 -0.058270499 0.0086249998
0.040964998 -0.057735499 0.0086239995
0.041297 -0.056782499 0.008618
0.041398 -0.056380499 0.0086150002
0.041607998 -0.055386499 0.0086019998
0.041728999 -0.054389499 0.0085969996
0.041747 -0.053723499 0.0085960003
0.041561 -0.049174499 0.008568
0.041774999 -0.048189498 0.0085650003
0.041868001 -0.047176499 0.0085619995
0.041884001 -0.046751499 0.0085589997
0.041869 -0.045743499 0.0085530002
0.041823 -0.044744499 0.008537
0.041728999 -0.043748502 0.0085349996
0.041621 -0.0427505 0.0085319998
0.041453 -0.041750502 0.008529
0.041313 -0.040958501 0.0085220002
0.041049 -0.0399835 0.0085049998
0.040697999 -0.039038502 0.0085039996
0.040243998 -0.0381255 0.0084990002
0.039669 -0.037256502 0.0084899999
0.039050002 -0.0363755 0.0084769996
0.038368002 -0.035515498 0.0084729996
0.037624002 -0.0346945 0.0084619997
0.036826 -0.0338655 0.008444
0.036146 -0.032994501 0.0084370002
0.035594001 0.0019944999 0.0082320003
0.035255 0.0029325001 0.0082200002
0.034922 0.0038755001 0.0082179997
0.034595001 0.0048205 0.0082050003
0.034269001 0.0057715001 0.0082
0.033927999 0.0067105 0.0081900004
0.033588 0.0076405001 0.0081860004
0.033268999 0.0086054998 0.0081740003
0.032954 0.0095595 0.0081630005
0.034765001 0.029722501 0.0080530001
0.034665 0.0307265 0.0080490001
0.034651 0.031217501 0.0080490001
0.034664001 0.0322165 0.0080380002
0.034651 0.0328045 0.0080380002
0.034527 0.0337875 0.0080350004
0.034334 0.0347725 0.0080220001
0.034093 0.0357465 0.0080209998
0.033805002 0.036766499 0.0080070002
0.033528 0.0377765 0.008006
0.033215001 0.0387385 0.0079929996
0.032712001 0.0399465 0.0079899998
0.032230999 0.0408535 0.0079760002
0.0317 0.041724499 0.007975
0.031093 0.0425345 0.0079610003
0.030418999 0.0432695 0.007956
0.029699 0.0439515 0.0079460004
0.028911 0.0445765 0.0079389997
0.028055999 0.045178499 0.0079290001
0.027197 0.045681499 0.0079239998
0.026283 0.0460965 0.007913
0.025318 0.046411499 0.0079100002
0.024307 0.046643499 0.0078999996
0.023293 0.0467485 0.0078959996
0.022273 0.0467715 0.0078929998
0.021235 0.046765499 0.0078830002
0.020197 0.0467715 0.0078819999
0.01901 0.0467785 0.0078689996
0.018018 0.0467995 0.0078649996
0.017015001 0.046797499 0.0078539997
0.016023001 0.046680499 0.0078539997
0.015113 0.0465235 0.0078509999
0.014128 0.046363499 0.0078490004
0.013139 0.046207499 0.0078419996
0.012164 0.046046499 0.0078389999
0.011047 0.0459035 0.007824
0.010053 0.045804501 0.007824
0.0090439999 0.045703501 0.0078229997
0.0080380002 0.0456715 0.0078079998
0.0070250002 0.0458575 0.0078059998
0.006052 0.045922499 0.0078050001
0.005045 0.046023499 0.007793
0.0040480001 0.046147499 0.007791
-0.00025499999 0.0460275 0.0077630002
-0.001232 0.045807499 0.007762
-0.0022150001 0.045589499 0.0077590002
-0.002627 0.045471501 0.0077610002
-0.0035929999 0.045132499 0.0077499999
-0.0045070001 0.044727501 0.0077470001
-0.0053750002 0.0442385 0.0077470001
-0.0062020002 0.043660499 0.0077450001
-0.0069539999 0.0429915 0.0077459998
-0.007528 0.042365499 0.0077470001
-0.0081559997 0.0415885 0.0077459998
-0.0087059997 0.040722501 0.0077470001
-0.009176 0.0397995 0.0077479999
-0.0095779998 0.0388055 0.0077590002
-0.0096899997 0.038470499 0.0077579999
-0.0099910004 0.037501499 0.007762
-0.010263 0.0365045 0.0077630002
-0.010516 0.0355005 0.0077729998
-0.010596 0.035170499 0.0077729998
-0.01081 0.0341895 0.0077760001
-0.010966 0.033195499 0.0077780001
-0.010999 0.032210499 0.0077889999
-0.010921 0.0312225 0.0077920002
-0.010781 0.0302215 0.007793
-0.010709 0.0292175 0.0078059998
-0.010727 0.028221499 0.0078059998
-0.010727 0.027222499 0.0078090001
-0.010617 0.026223499 0.0078220004
-0.010432 0.0252285 0.007824
-0.010348 0.024873501 0.0078330003
-0.0101 0.023897501 0.0078389999
-0.0097749997 0.022946499 0.0078480002
-0.0094259996 0.022009499 0.0078530004
-0.0090140002 0.021069501 0.0078649996
-0.0086589996 0.020310501 0.0078689996
-0.0082329996 0.019404501 0.0078800004
-0.0077760001 0.0185165 0.0078849997
-0.007311 0.017631499 0.0078980001
-0.0068700002 0.016748499 0.0078999996
-0.0065520001 0.015779501 0.0079119997
-0.006449 0.0145405 0.0079150004
-0.0064429999 0.0142225 0.0079150004
-0.0064440002 0.0132245 0.0079279998
-0.0064590001 0.0122235 0.0079300003
-0.0099269999 -0.0287995 0.0081590004
-0.0095349997 -0.0297205 0.008169
-0.0090979999 -0.0306965 0.0081749996
-0.0085899998 -0.031703498 0.0081860004
-0.0080629997 -0.032692499 0.0081989998
-0.007559 -0.033717498 0.0082050003
-0.0071459999 -0.0347175 0.0082160002
-0.0068600001 -0.035740498 0.0082200002
-0.0068160002 -0.036232501 0.0082160002
-0.0069610002 -0.0372025 0.0082200002
-0.0074709998 -0.0381025 0.0082299998
-0.0081869997 -0.0389545 0.0082329996
-0.0089290002 -0.0398065 0.0082350001
-0.0096110003 -0.040641502 0.0082350001
-0.010193 -0.0415265 0.0082339998
-0.010688 -0.042423502 0.0082350001
-0.011082 -0.043343499 0.0082360003
-0.011423 -0.044294499 0.0082360003
-0.011703 -0.045238499 0.0082470002
-0.011935 -0.046205498 0.0082489997
-0.012122 -0.047192499 0.0082520004
-0.012254 -0.048182499 0.008262
-0.012347 -0.049202502 0.0082670003
-0.0124 -0.050219499 0.0082670003
-0.012408 -0.051264498 0.0082799997
-0.0033529999 -0.069231503 0.0084419996
-0.002696 -0.069521502 0.0084429998
-0.001867 -0.070660502 0.0084480001
-0.0013370001 -0.071801499 0.0084650004
-0.00072800001 -0.072694503 0.0084729996
0.000371 -0.073585503 0.0084769996
0.00129 -0.074042499 0.0084929997
0.002015 -0.074265502 0.008502
0.003032 -0.074456498 0.0085039996
0.0040429998 -0.074523501 0.008506
0.0050340001 -0.074424498 0.0085129999
0.0060370001 -0.074263498 0.008525
0.0070770001 -0.074031502 0.0085300002
0.0080159996 -0.073723502 0.0085319998
0.0089469999 -0.073342502 0.0085340003
0.010079 -0.072777502 0.0085349996
0.010958 -0.072247498 0.0085349996
0.011735 -0.071615502 0.0085349996
0.012419 -0.070889503 0.0085349996
0.013021 -0.070104502 0.0085410001
0.013764 -0.068974502 0.0085619995
0.014492 -0.068216503 0.0085429996
0.01538 -0.067764498 0.0085549997
0.016433001 -0.067622498 0.0085650003
0.017608 -0.067619503 0.008595
0.018750001 -0.067654498 0.0085699996
0.019974001 -0.067778498 0.0085899998
0.021013999 -0.067934498 0.0085960003
0.022022 -0.068106502 0.0085979998
0.023018001 -0.068292499 0.0086150002
0.024016 -0.068510503 0.0086239995
0.025010999 -0.068740502 0.0086249998
0.026015 -0.069013499 0.008626
0.027014 -0.069305502 0.008626
0.027534001 -0.069466501 0.008626
0.028671 -0.069727503 0.0086460002
0.029716 -0.069812499 0.0086470004
0.030739 -0.069776498 0.0086470004
0.031714 -0.069564499 0.0086460002
0.032628998 -0.069176503 0.0086460002
0.011661 -0.071888499 0.009238
0.012537 -0.070997499 0.009238
0.013276 -0.070093498 0.0092369998
0.01392 -0.069229499 0.0092399996
0.01465 -0.068494499 0.009238
0.015585 -0.068120502 0.0092630005
0.01668 -0.068014503 0.0092679998
0.017821001 -0.068012498 0.0092780003
0.019007999 -0.068081498 0.0092890002
0.020207001 -0.068209499 0.0092900004
0.02101 -0.068324499 0.0092989998
0.022012999 -0.068487503 0.0092989998
0.023014 -0.068680502 0.0092989998
0.024009001 -0.068889499 0.0093149999
0.02502 -0.069126502 0.0093240002
0.026015 -0.069383502 0.0093289996
0.026518 -0.069518499 0.0093299998
0.027649 -0.069810502 0.009331
0.028731 -0.070007503 0.0093360003
0.029785 -0.070072502 0.0093360003
0.0308 -0.069987498 0.0093390001
0.031767 -0.069780499 0.0093489997
0.032664999 -0.069344498 0.0093489997
0.033355001 -0.068907499 0.0093510002
0.034161001 -0.068253502 0.0093489997
0.034795001 -0.067422502 0.0093480004
0.035238001 -0.066303499 0.0093329996
0.035569999 -0.064859502 0.0093299998
0.036175001 -0.063816503 0.0093299998
0.036943998 -0.063134499 0.0093299998
0.037716001 -0.062498499 0.0093299998
0.038546 -0.061690498 0.0093299998
0.039212 -0.060950499 0.0093299998
0.039808001 -0.060142498 0.0093289996
0.040343001 -0.059269499 0.0093280002
0.040801998 -0.058335502 0.0093250005
0.04104 -0.057774499 0.0093219997
0.041356999 -0.056815501 0.0093170004
0.041467998 -0.056394499 0.0093160002
0.041662 -0.055404499 0.0093010003
0.041745 -0.054738499 0.0093
0.041774999 -0.054405499 0.0092989998
0.041768 -0.053377502 0.0092970002
0.041491002 -0.049741499 0.0092679998
0.041638002 -0.049192499 0.0092679998
0.041832 -0.048200499 0.0092669996
0.04191 -0.047181498 0.009261
0.041917 -0.046735499 0.0092590004
0.041887 -0.045736499 0.0092430003
0.041832 -0.044744499 0.009238
0.041724 -0.043741498 0.009238
0.041591998 -0.0427505 0.0092350002
0.041405 -0.041748501 0.0092280004
0.041242 -0.040967502 0.0092169996
0.040972002 -0.0399995 0.009207
0.040585 -0.039063498 0.0092059998
0.040127002 -0.038161501 0.009199
0.039561 -0.0372805 0.0091819996
0.038996998 -0.0363965 0.0091770003
0.038383 -0.0355145 0.0091730002
0.037639 -0.034654502 0.009149
0.036897998 -0.0338265 0.0091460003
0.036308002 -0.032973502 0.0091340002
0.035549998 0.0019835001 0.0089299995
0.035215002 0.0029394999 0.008924
0.034890998 0.0038755001 0.0089119999
0.034564 0.0048185 0.0089020003
0.034240998 0.0057724998 0.0088999998
0.033907 0.0067075002 0.008893
0.033588 0.0076604998 0.0088750003
0.034566 0.030226501 0.0087489998
0.034543 0.030699501 0.0087479996
0.034543 0.031220499 0.0087470002
0.034573998 0.032219499 0.0087470002
0.034557998 0.033208501 0.0087390002
0.034487002 0.0337805 0.0087360004
0.034295 0.034765501 0.0087219998
0.034061 0.035744499 0.0087179998
0.033842999 0.0367245 0.0087130005
0.033572 0.037802499 0.0087040002
0.033264 0.0387775 0.0086909998
0.032758001 0.039994501 0.0086869998
0.032288 0.040916499 0.0086810002
0.031753998 0.041793499 0.0086669996
0.031146999 0.0425965 0.008657
0.030474 0.0433295 0.0086549995
0.02977 0.044039499 0.0086460002
0.028992999 0.044665501 0.0086300001
0.028109999 0.0452815 0.0086249998
0.027246 0.045775499 0.008622
0.026341001 0.0462065 0.0086169997
0.025384 0.0465395 0.0086000003
0.024377 0.0467785 0.0085960003
0.023322999 0.0468935 0.0085939998
0.022313001 0.0469185 0.0085880002
0.021275001 0.0469095 0.0085819997
0.02101 0.0469095 0.0085810004
0.020011 0.0468885 0.008568
0.019007999 0.046875499 0.0085650003
0.01801 0.0468885 0.0085629998
0.017015001 0.0468885 0.008556
0.016014 0.0468175 0.0085549997
0.015014 0.0466635 0.0085450001
0.014083 0.0465235 0.0085359998
0.0131 0.0463745 0.0085349996
0.012118 0.0462365 0.008533
0.011044 0.0461105 0.0085260002
0.010047 0.0460025 0.008525
0.0090420004 0.045906499 0.0085199997
0.0080239996 0.045866501 0.0085039996
0.007038 0.046016499 0.008502
0.0060490002 0.0461355 0.0085009998
0.005047 0.0462365 0.008498
0.0040429998 0.0463535 0.008494
-0.00028599999 0.046137501 0.0084650004
-0.0012619999 0.0458965 0.0084619997
-0.002228 0.0456535 0.0084530003
-0.0026499999 0.045518499 0.0084509999
-0.0036160001 0.0451665 0.0084450003
-0.004528 0.0447555 0.0084429998
-0.0053900001 0.044248499 0.0084429998
-0.006209 0.043676499 0.0084429998
-0.0069630002 0.043008499 0.0084429998
-0.007551 0.042383499 0.0084429998
-0.0081709996 0.0415975 0.0084429998
-0.0087289996 0.0407435 0.008444
-0.0092010004 0.039818499 0.0084459996
-0.0096039996 0.038819499 0.0084530003
-0.0097209997 0.0384975 0.0084530003
-0.010007 0.0375145 0.0084629999
-0.01027 0.0365065 0.008467
-0.010503 0.0354845 0.0084720002
-0.010581 0.035170499 0.0084720002
-0.01079 0.0341895 0.0084729996
-0.010945 0.0331905 0.0084760003
-0.010968 0.0322165 0.0084910002
-0.010905 0.031225501 0.0084960004
-0.01074 0.0302235 0.0085009998
-0.010603 0.0292175 0.0085039996
-0.010578 0.028228501 0.0085039996
-0.010579 0.027229499 0.0085089998
-0.010495 0.026223499 0.008525
-0.010441 0.0258945 0.008525
-0.01026 0.0249025 0.0085340003
-0.010015 0.023922499 0.0085349996
-0.0097049996 0.0229735 0.0085509997
-0.0093790004 0.022030501 0.0085570002
-0.0089849997 0.021086499 0.008564
-0.008649 0.020328499 0.0085669998
-0.0082149999 0.019414499 0.0085810004
-0.0077689998 0.0185245 0.0085880002
-0.0073250001 0.017631499 0.0085960003
-0.0068990001 0.016748499 0.0085979998
-0.0066140001 0.015755501 0.0086139999
-0.0065259999 0.0145255 0.0086230002
-0.0065199998 0.0142325 0.0086209998
-0.0065060002 0.0132245 0.0086249998
-0.010859 -0.025949501 0.008839
-0.010564 -0.0269065 0.0088400003
-0.010278 -0.0278595 0.0088470001
-0.0099360002 -0.028803499 0.0088640004
-0.009571 -0.0297265 0.00887
-0.0091530001 -0.0307105 0.0088710003
-0.0086580003 -0.031716499 0.0088799996
-0.0081460001 -0.032732502 0.008893
-0.0076990002 -0.0337165 0.0089020003
-0.0072880001 -0.034730501 0.0089029996
-0.0070310002 -0.035738502 0.0089189997
-0.007032 -0.0367775 0.0089199999
-0.0071259998 -0.037139501 0.0089180004
-0.0075889998 -0.038053501 0.0089309998
-0.0082400003 -0.038916498 0.008932
-0.0089530004 -0.0397745 0.008932
-0.0095870001 -0.040640499 0.008932
-0.01017 -0.0415175 0.008932
-0.010635 -0.0424245 0.008932
-0.011022 -0.043350499 0.0089349998
-0.011346 -0.044301499 0.0089379996
-0.011603 -0.045263499 0.0089490004
-0.01182 -0.046235502 0.0089530004
-0.011997 -0.047222499 0.0089570004
-0.012122 -0.048235498 0.0089609995
-0.012161 -0.048747499 0.008963
-0.012229 -0.049741499 0.0089640003
-0.012259 -0.050731499 0.0089680003
-0.012254 -0.051732499 0.0089870002
-0.012223 -0.052729499 0.0089910002
-0.0071550002 -0.067791499 0.00911
-0.0062660002 -0.068317503 0.0091150003
-0.0053900001 -0.068719499 0.0091169998
-0.0044300002 -0.069031499 0.0091340002
-0.003399 -0.069302499 0.0091429995
-0.0026990001 -0.069573499 0.009145
-0.001856 -0.070650503 0.009149
-0.001329 -0.071751498 0.0091660004
-0.000489 -0.072873503 0.009176
0.000379 -0.073560499 0.0091800001
0.001278 -0.074019499 0.0091930004
0.0020099999 -0.074260503 0.0092010004
0.003025 -0.0744555 0.0092059998
0.0089720003 -0.073436499 0.0092359995
0.0093510002 -0.073262498 0.0092369998
0.011046 -0.072338499 0.009238
0.012689 -0.071069501 0.0099409996
0.013375 -0.070253499 0.0099400003
0.014053 -0.069445498 0.0099400003
0.01483 -0.068811499 0.0099409996
0.015760001 -0.068450503 0.0099409996
0.016853999 -0.068359502 0.0099649997
0.018023999 -0.068389498 0.0099719996
0.019229 -0.068467498 0.0099729998
0.020479999 -0.068616502 0.0099980002
0.021003 -0.068694502 0.010001
0.022007 -0.068862498 0.010002
0.023004999 -0.069045499 0.010002
0.024003999 -0.069238499 0.010008
0.024993001 -0.069470502 0.01002
0.026000001 -0.069725499 0.010026
0.027003 -0.069966502 0.010033
0.027743001 -0.070129499 0.010036
0.028802 -0.070272498 0.010036
0.029846 -0.070308499 0.010037
0.030844999 -0.070184499 0.010037
0.031798001 -0.069918498 0.010049
0.032705002 -0.069466501 0.010051
0.033417001 -0.069015503 0.010049
0.034223001 -0.068373501 0.010049
0.034841999 -0.067511499 0.010039
0.035277002 -0.066359498 0.010033
0.035624001 -0.064949498 0.010032
0.036251999 -0.063927501 0.010032
0.037021998 -0.063274503 0.010033
0.037792999 -0.062625498 0.010033
0.038631 -0.061775502 0.010033
0.039274 -0.061019499 0.010032
0.039864998 -0.060197499 0.010031
0.040399 -0.059325501 0.010028
0.040697999 -0.058725499 0.010028
0.041094001 -0.057806499 0.010021
0.041242 -0.057370499 0.010021
0.041514002 -0.056403499 0.010007
0.041689999 -0.055411499 0.010004
0.041813999 -0.054421499 0.010002
0.041838001 -0.053735498 0.010001
0.041708 -0.052736498 0.009993
0.041535001 -0.051733501 0.0099809999
0.041443001 -0.050734501 0.0099759996
0.041558001 -0.049758501 0.0099719996
0.041698001 -0.049206499 0.0099719996
0.041885 -0.048219498 0.00997
0.041923001 -0.047743499 0.0099670002
0.041954 -0.046735499 0.0099590002
0.041931 -0.045736499 0.0099459998
0.041846 -0.044740502 0.0099409996
0.041723002 -0.043738499 0.0099400003
0.041597001 -0.0429435 0.009935
0.041412 -0.0419585 0.0099320002
0.041187 -0.040974502 0.0099170003
0.040893 -0.040014502 0.0099109998
0.040513001 -0.039084502 0.0099029997
0.040033001 -0.038192499 0.0098980004
0.039512999 -0.0372945 0.0098820003
0.038995001 -0.036381502 0.0098799998
0.038437001 -0.035499498 0.0098750005
0.037763 -0.0346535 0.0098590003
0.037028 -0.0338245 0.0098489998
0.036477 -0.032941502 0.0098369997
0.035183001 0.0029245 0.0096239997
0.034864999 0.0038675 0.0096150003
0.034525 0.0048185 0.0096049998
0.034201 0.0057715001 0.0096030002
0.034442 0.031225501 0.0094499998
0.034488 0.032226499 0.009447
0.034472998 0.033218499 0.0094389999
0.034348 0.034210499 0.0094250003
0.034247 0.0347565 0.0094229998
0.034006 0.0357395 0.00942
0.033797 0.036718499 0.0094149997
0.033564001 0.037811499 0.0094010001
0.033271998 0.0387845 0.0093909996
0.032900002 0.039723501 0.009389
0.032776002 0.0400155 0.009389
0.032317001 0.0409525 0.0093820002
0.031785 0.0418345 0.0093700001
0.031194 0.0426495 0.0093599996
0.030534999 0.0434005 0.0093590003
0.029815 0.044087499 0.0093470002
0.02905 0.0447415 0.0093320003
0.028227 0.045311499 0.0093289996
0.027286001 0.0458575 0.0093210004
0.026384 0.046287499 0.0093149999
0.025415 0.046620499 0.0093
0.024420001 0.0468795 0.0092979996
0.023351001 0.0470105 0.009292
0.022332 0.0470335 0.0092789996
0.021294 0.047015499 0.0092740003
0.021007 0.0470085 0.0092740003
0.020006999 0.0469875 0.0092679998
0.018999999 0.046960499 0.0092669996
0.018012 0.0469575 0.0092620002
0.016998 0.046967499 0.0092580002
0.016004 0.0469325 0.0092559997
0.014999 0.046806499 0.0092420001
0.014039 0.046689499 0.009238
0.013028 0.046558499 0.009238
0.012057 0.0464275 0.0092329998
0.011059 0.046317499 0.0092289997
0.010046 0.046225499 0.0092259999
0.0090340003 0.046138499 0.0092129996
0.008041 0.0460895 0.009207
0.007032 0.046209499 0.0092049995
0.0060390001 0.046356499 0.009203
0.0050380002 0.0464385 0.0091960002
0.0040350002 0.046542499 0.0091819996
-0.001278 0.045961499 0.0091620004
-0.0022390001 0.045690499 0.0091500003
-0.0026769999 0.0455475 0.0091479998
-0.0036220001 0.045187499 0.0091469996
-0.0045349998 0.0447625 0.0091460003
-0.0053869998 0.0442455 0.0091460003
-0.0062040002 0.0436715 0.009145
-0.0068390002 0.0431065 0.009145
-0.007549 0.042383499 0.0091460003
-0.0081770001 0.041598499 0.0091460003
-0.0087369997 0.040732499 0.0091460003
-0.0092139998 0.0398275 0.0091460003
-0.0093799997 0.0394415 0.0091469996
-0.0097279996 0.038499501 0.0091509996
-0.010015 0.0375215 0.0091620004
-0.010268 0.036502499 0.009168
-0.010348 0.036146499 0.009172
-0.010554 0.035168499 0.0091749998
-0.010751 0.034178499 0.0091770003
-0.010911 0.033186499 0.0091770003
-0.010945 0.0321505 0.0091930004
-0.010875 0.0312365 0.0091970004
-0.010712 0.0302255 0.0092019998
-0.01054 0.0292335 0.0092059998
-0.010501 0.028981499 0.009207
-0.010447 0.0282345 0.0092089996
-0.010431 0.0272265 0.0092160003
-0.010379 0.026230499 0.0092289997
-0.010253 0.025231499 0.0092320004
-0.010191 0.024930499 0.0092369998
-0.0099590002 0.023945499 0.009238
-0.0096739996 0.0229895 0.0092439996
-0.009354 0.022045501 0.0092590004
-0.0089919996 0.021102499 0.0092660002
-0.0085650003 0.020178501 0.0092679998
-0.0081540002 0.019265501 0.0092749996
-0.007799 0.018522499 0.0092909997
-0.0073719998 0.017609499 0.0092979996
-0.0069550001 0.016709501 0.0093019996
-0.0066439998 0.0155475 0.0093149999
-0.0065759998 0.0145115 0.0093210004
-0.0065669999 0.0142305 0.0093240002
-0.0065509998 0.0132315 0.0093280002
-0.010836 -0.025942501 0.0095370002
-0.010565 -0.0268985 0.009544
-0.010269 -0.027858499 0.0095480001
-0.0099370005 -0.0287915 0.0095640002
-0.0095889997 -0.0297105 0.0095720002
-0.0091850003 -0.0307045 0.0095739998
-0.0087369997 -0.031701501 0.0095800003
-0.0082630003 -0.032709502 0.009598
-0.0078379996 -0.0336845 0.0096049998
-0.0074280002 -0.0347225 0.009606
-0.0072169998 -0.0357305 0.0096239997
-0.0072110002 -0.036762498 0.0096220002
-0.0075750002 -0.0377465 0.0096279997
-0.0077450001 -0.038006499 0.009633
-0.0083259996 -0.0388905 0.0096300002
-0.010116 -0.041516501 0.0096349996
-0.010564 -0.0424385 0.0096349996
-0.010944 -0.043371499 0.0096349996
-0.011247 -0.044324499 0.0096380003
-0.011479 -0.045295499 0.0096450001
-0.011688 -0.046269499 0.0096540004
-0.011843 -0.047275499 0.00966
-0.011967 -0.048265502 0.0096610002
-0.012051 -0.049277499 0.0096659996
-0.012075 -0.049732499 0.0096659996
-0.012083 -0.050722498 0.0096749999
-0.012097 -0.051732499 0.009687
-0.012068 -0.052729499 0.009695
-0.011998 -0.053728499 0.0096969996
-0.0071410001 -0.067782499 0.0098130004
-0.0062779998 -0.068329498 0.0098179998
-0.0054040002 -0.068745501 0.009819
-0.0044590002 -0.069087498 0.0098360004
-0.0034380001 -0.069365501 0.0098430002
-0.002719 -0.069629498 0.0098479996
-0.001856 -0.070655502 0.0098510003
-0.001317 -0.071757503 0.0098679997
-0.00069700001 -0.072619498 0.009877
0.00038300001 -0.073517501 0.009881
0.001297 -0.073985502 0.0098980004
0.0020109999 -0.074221499 0.0099029997
0.013453 -0.070421502 0.010644
0.014162 -0.069661498 0.010646
0.014962 -0.069050498 0.01065
0.015944 -0.068751499 0.010667
0.017075 -0.068721503 0.010673
0.018231001 -0.068744503 0.010679
0.019433999 -0.068843499 0.010687
0.02069 -0.069034502 0.010696
0.022045 -0.069367498 0.010716
0.023001 -0.069562502 0.010714
0.024013 -0.069682501 0.010731
0.025001001 -0.069831498 0.010729
0.026000001 -0.070035502 0.010729
0.026705001 -0.070196502 0.010733
0.027797 -0.070393503 0.010739
0.028862 -0.070510499 0.010741
0.029894 -0.070494503 0.010741
0.030886 -0.070350498 0.010745
0.031831 -0.070035502 0.010745
0.032729998 -0.069564499 0.010747
0.033481002 -0.069107503 0.010751
0.034279 -0.068494499 0.010749
0.034906998 -0.067617498 0.010743
0.035324998 -0.066427499 0.010737
0.035666 -0.065024503 0.010733
0.036316998 -0.064064503 0.010735
0.037076 -0.063378498 0.010733
0.037847999 -0.062716499 0.010735
0.038702998 -0.061850499 0.010735
0.039335001 -0.061072499 0.010729
0.039917 -0.060243499 0.010729
0.040438 -0.059357502 0.010731
0.040754002 -0.058755498 0.010725
0.041126002 -0.057825498 0.01072
0.041287001 -0.057377499 0.01072
0.041553002 -0.056408498 0.010714
0.041746002 -0.055423498 0.010706
0.041855998 -0.054403499 0.010706
0.041877002 -0.053728499 0.010698
0.041777998 -0.052731499 0.010694
0.041620001 -0.051725499 0.010692
0.041528001 -0.050743502 0.010683
0.041636001 -0.049741499 0.010677
0.041753002 -0.049215499 0.010675
0.041930001 -0.048228499 0.010669
0.041976999 -0.047201499 0.010661
0.041985001 -0.046733499 0.010663
0.041940998 -0.045732498 0.010654
0.041845001 -0.044730499 0.010644
0.041701 -0.043734498 0.010642
0.041565999 -0.042944498 0.010636
0.041359998 -0.0419605 0.010625
0.041108999 -0.0409845 0.010621
0.040798999 -0.0400315 0.010611
0.040405001 -0.0391155 0.010603
0.039932001 -0.038200501 0.010594
0.039483 -0.037286501 0.010588
0.039028 -0.036372501 0.010582
0.038509 -0.035476498 0.010578
0.037893999 -0.034601498 0.01057
0.037174001 -0.033749498 0.010553
0.036671001 -0.032856502 0.010536
0.035115 0.0029205 0.010321
0.034797002 0.0038574999 0.010308
0.034472 0.0047964999 0.010308
0.034394 0.0322305 0.010143
0.034395002 0.0332205 0.010129
0.034247998 0.0342145 0.010125
0.034124002 0.034736499 0.010125
0.033898 0.0357095 0.010122
0.033728998 0.036702499 0.010114
0.033526 0.037802499 0.010096
0.033264998 0.0387845 0.010093
0.032908 0.039740499 0.010089
0.032788999 0.040018499 0.010089
0.032327 0.040994499 0.010082
0.031807002 0.041864499 0.010065
0.031225 0.0426885 0.010062
0.030561 0.0434375 0.010058
0.029855 0.044133499 0.010043
0.029089 0.0447855 0.010033
0.028272999 0.045370501 0.010031
0.027325001 0.045938499 0.010024
0.026425 0.0463605 0.010008
0.025477 0.046705499 0.010002
0.024462 0.0469625 0.0099999998
0.023386 0.047123499 0.009993
0.022351 0.047153499 0.0099769998
0.021329001 0.0471275 0.0099769998
0.021 0.047116499 0.0099719996
0.020001 0.0470955 0.0099719996
0.018996 0.0470655 0.0099689998
0.018000999 0.047054499 0.0099649997
0.017000999 0.047038499 0.0099510001
0.016003 0.047022499 0.0099489996
0.014997 0.0469715 0.009943
0.014009 0.046859499 0.009939
0.013025 0.046751499 0.009939
0.012041 0.0466405 0.0099360002
0.010998 0.0465395 0.0099299997
0.010041 0.046464499 0.0099210003
0.0090330001 0.046386499 0.0099139996
0.0079619996 0.0463445 0.0099090002
0.007034 0.0464615 0.0099069998
0.0067070001 0.046517499 0.009904
0.0057000001 0.0466175 0.0098989997
0.0050300001 0.046659499 0.0098989997
0.0040290002 0.0467485 0.009881
0.0030169999 0.046852499 0.0098799998
0.002045 0.0468475 0.0098759998
-0.001289 0.045991499 0.0098540001
-0.0022430001 0.0456945 0.0098519996
-0.0026690001 0.0455475 0.00985
-0.0036220001 0.0451755 0.0098489998
-0.00453 0.0447465 0.0098479996
-0.0053869998 0.044234499 0.0098479996
-0.006203 0.043651499 0.0098479996
-0.0069530001 0.0429755 0.0098479996
-0.0075340001 0.042367499 0.0098470002
-0.0081709996 0.041591499 0.0098470002
-0.008742 0.040739499 0.0098470002
-0.0092010004 0.039832499 0.0098489998
-0.0096119996 0.0388075 0.0098489998
-0.0097209997 0.038499501 0.0098489998
-0.010007 0.0375215 0.0098550003
-0.010255 0.0365065 0.0098689999
-0.010471 0.035471499 0.009873
-0.010533 0.035161499 0.0098750005
-0.010719 0.0341755 0.009877
-0.010851 0.033172499 0.0098799998
-0.010906 0.032219499 0.0098829996
-0.010851 0.0312315 0.0098900003
-0.010696 0.0302325 0.0099010002
-0.010488 0.0292335 0.0099090002
-0.010333 0.028019501 0.0099109998
-0.010317 0.0272265 0.0099139996
-0.010286 0.0262345 0.0099280002
-0.010162 0.0252445 0.0099320002
-0.0099529997 0.0242415 0.0099400003
-0.0098909996 0.0239705 0.0099409996
-0.0096279997 0.022999501 0.0099449996
-0.0093240002 0.0220575 0.0099579999
-0.0089680003 0.021109501 0.0099649997
-0.0085810004 0.0201855 0.0099710003
-0.0082409997 0.0194075 0.0099769998
-0.0078229997 0.018507499 0.009993
-0.0074029998 0.017593499 0.0099999998
-0.0069860001 0.016687499 0.010002
-0.0066740001 0.0155485 0.010008
-0.0066069998 0.0145095 0.010021
-0.0065990002 0.0142405 0.010024
-0.0065680002 0.0132335 0.01003
-0.0065680002 0.0122345 0.010032
-0.010526 -0.0268865 0.010245
-0.01023 -0.0278435 0.010248
-0.0099139996 -0.0287885 0.010263
-0.0095889997 -0.0296975 0.010269
-0.0092019998 -0.0306895 0.010277
-0.0087829996 -0.031680498 0.01028
-0.0083109997 -0.0327085 0.010296
-0.0078999996 -0.033694498 0.010307
-0.0075440002 -0.0347085 0.010308
-0.0073580001 -0.035724498 0.010319
-0.007396 -0.0367475 0.010324
-0.0074809999 -0.0370465 0.01033
-0.0078849997 -0.037961502 0.010326
-0.010054 -0.0415425 0.010336
-0.010488 -0.042448498 0.010336
-0.01085 -0.043396499 0.010342
-0.011115 -0.044354498 0.010346
-0.01134 -0.045325499 0.010354
-0.011533 -0.046301499 0.010355
-0.011608 -0.046744499 0.010357
-0.011743 -0.047737502 0.010363
-0.01185 -0.048731498 0.010369
-0.011921 -0.049734499 0.010373
-0.011944 -0.050724499 0.010379
-0.011936 -0.051723499 0.010386
-0.011928 -0.052724499 0.010392
-0.011859 -0.053723499 0.010398
-0.0044760001 -0.069128498 0.010534
-0.0035059999 -0.069417499 0.010539
-0.0027379999 -0.069704503 0.010547
-0.001871 -0.070662498 0.010557
-0.00131 -0.071709499 0.010565
-0.00067500002 -0.072575502 0.010574
0.00038700001 -0.073468499 0.010586
0.001301 -0.073935501 0.010592
0.002018 -0.074160501 0.010598
0.032318 -0.069895498 0.011448
0.03266 -0.069704503 0.011446
0.033527002 -0.069192499 0.01145
0.034331001 -0.068604499 0.011452
0.034945 -0.067718498 0.011446
0.035353001 -0.066551499 0.011442
0.035743002 -0.065118499 0.011432
0.036384001 -0.064193502 0.011436
0.037135001 -0.063499503 0.011438
0.037893999 -0.062817499 0.011436
0.038763002 -0.061908498 0.011436
0.039391998 -0.061125498 0.011434
0.039964002 -0.060298499 0.01143
0.040337 -0.059678499 0.01143
0.040798999 -0.058780499 0.011423
0.041179001 -0.057850499 0.011421
0.041333999 -0.057386499 0.011421
0.041584 -0.056420501 0.011419
0.041776001 -0.055425499 0.011407
0.041891001 -0.054401498 0.011407
0.04191 -0.053721499 0.011399
0.041808002 -0.052725501 0.011392
0.041662 -0.051728498 0.01139
0.041598 -0.050734501 0.011384
0.041685 -0.049741499 0.01138
0.041799001 -0.049222499 0.011372
0.041962001 -0.048230499 0.01137
0.041994002 -0.047185499 0.011363
0.041992001 -0.046728499 0.011361
0.041933 -0.045725498 0.011355
0.041813999 -0.044733498 0.011343
0.041685 -0.043938499 0.011341
0.041496001 -0.0429595 0.011333
0.041287001 -0.041973501 0.011326
0.041010998 -0.040992498 0.01132
0.040663 -0.0400615 0.011312
0.040279999 -0.0391335 0.011306
0.039872002 -0.038211498 0.011297
0.039469998 -0.0372735 0.011291
0.039074998 -0.0363525 0.011285
0.038598999 -0.0354225 0.011277
0.03802 -0.0345705 0.01127
0.037314001 -0.0337025 0.011256
0.036843002 -0.032796498 0.011242
0.036849 -0.031781498 0.011242
0.039149001 -0.025710501 0.011217
0.039391998 -0.0247145 0.011215
0.034139998 0.034217499 0.010828
0.034023002 0.0347105 0.010826
0.033790998 0.0356935 0.01082
0.033642001 0.0366855 0.010811
0.033465002 0.037765499 0.010801
0.033234 0.038780499 0.010793
0.032898001 0.0397445 0.010785
0.032497 0.0406565 0.010778
0.032325 0.0409915 0.010778
0.031808 0.041869499 0.01077
0.031227 0.042698499 0.01076
0.030584 0.0434715 0.010752
0.029879 0.0441765 0.010747
0.02912 0.0448195 0.010739
0.028301001 0.045410499 0.010731
0.027348001 0.0459865 0.01072
0.026438 0.0464065 0.010714
0.025498999 0.0467625 0.010704
0.024491999 0.0470265 0.0107
0.023393 0.0472055 0.010692
0.022382 0.0472515 0.010685
0.021336 0.0472335 0.010679
0.020998999 0.0472285 0.010677
0.019998999 0.047208499 0.010669
0.018996 0.047178499 0.010667
0.017991001 0.047152501 0.01066
0.016998 0.047139499 0.010654
0.016001999 0.0471275 0.01065
0.014994 0.0470975 0.010644
0.014008 0.0470495 0.010642
0.01294 0.046944499 0.010636
0.011942 0.0468495 0.010632
0.011031 0.0467715 0.010625
0.010037 0.0467095 0.010623
0.0088940002 0.0466405 0.010617
0.0080300001 0.0466065 0.010609
0.0070400001 0.0467095 0.010598
0.006763 0.046751499 0.010598
0.0057560001 0.046843499 0.010594
0.0050280001 0.0468795 0.010592
0.0040279999 0.0469575 0.010586
0.0030179999 0.0470195 0.010576
0.002045 0.0469505 0.010574
0.001592 0.046852499 0.010572
-0.002665 0.045527499 0.010555
-0.003609 0.045155499 0.010551
-0.0045150002 0.044721499 0.010545
-0.0053670001 0.044208501 0.010549
-0.00618 0.0436185 0.010547
-0.0069400002 0.0429525 0.010545
-0.0075099999 0.042351499 0.010545
-0.0081479996 0.041568499 0.010547
-0.0087139998 0.040716499 0.010549
-0.0091939997 0.039802499 0.010553
-0.0093569998 0.039436501 0.010553
-0.0096899997 0.038486499 0.010555
-0.0099759996 0.0374985 0.010559
-0.010215 0.036479499 0.010567
-0.010286 0.036137499 0.010567
-0.010493 0.0351565 0.010567
-0.010658 0.034162499 0.010576
-0.010797 0.033163499 0.010582
-0.010852 0.032226499 0.010586
-0.010805 0.0312365 0.01059
-0.010656 0.030235499 0.010601
-0.010439 0.0292475 0.010607
-0.010224 0.0280465 0.010615
-0.010193 0.0272335 0.010619
-0.010167 0.0262415 0.010627
-0.010062 0.0252425 0.01063
-0.010023 0.0249805 0.010632
-0.0098360004 0.0239885 0.01064
-0.0095889997 0.023022501 0.010646
-0.0093329996 0.0222685 0.010654
-0.0089379996 0.021118499 0.010667
-0.008564 0.020186501 0.010673
-0.0082390001 0.019429499 0.010679
-0.0077530001 0.018344499 0.010689
-0.0074120001 0.017599501 0.010696
-0.0069940002 0.016678501 0.010708
-0.0066760001 0.0155545 0.01071
-0.0065910001 0.0145275 0.01072
-0.0065830001 0.0142405 0.01072
-0.0065600001 0.0132465 0.010727
-0.0065489998 0.0122395 0.010731
-0.0065520001 0.0112335 0.010739
-0.011433 -0.0090734996 0.010826
-0.01151 -0.0097465003 0.010834
-0.010945 -0.024919501 0.010927
-0.01072 -0.025895501 0.010935
-0.010457 -0.0268605 0.01094
-0.010185 -0.0278225 0.01095
-0.0098879999 -0.0287735 0.010956
-0.009571 -0.0296895 0.010969
-0.0091859996 -0.0307045 0.010975
-0.0087679997 -0.0316885 0.010981
-0.0083419997 -0.0326875 0.010991
-0.0079469997 -0.033694498 0.011002
-0.0076370002 -0.0346945 0.011008
-0.0074820002 -0.035738502 0.01102
-0.0075830002 -0.036744501 0.011022
-0.01041 -0.042471498 0.011043
-0.010757 -0.043419499 0.011043
-0.010999 -0.044381499 0.011047
-0.011216 -0.045364499 0.011051
-0.011394 -0.046343502 0.011053
-0.011555 -0.047325499 0.011058
-0.01167 -0.048338499 0.01107
-0.011709 -0.048726499 0.01107
-0.011789 -0.049725499 0.011076
-0.011811 -0.050722498 0.011082
-0.011817 -0.051712502 0.011086
-0.011789 -0.052713498 0.011095
-0.011724 -0.053717501 0.011101
-0.01167 -0.054754499 0.011105
-0.003547 -0.069470502 0.011244
-0.00066299998 -0.072497502 0.011275
0.000398 -0.073409498 0.011283
0.001309 -0.073873498 0.011293
0.014285 -0.069884501 0.011357
0.015084 -0.069291502 0.011353
0.016096 -0.069045499 0.011368
0.017243 -0.069032498 0.011374
0.018425001 -0.069103502 0.011382
0.019653 -0.069222502 0.011394
0.020872001 -0.069392502 0.011397
0.022141 -0.069635503 0.011401
0.023014 -0.069870502 0.011419
0.023985 -0.070024498 0.011417
0.025 -0.070164502 0.011426
0.026004 -0.070347503 0.011432
0.026774 -0.070483498 0.01143
0.027851 -0.070627503 0.011436
0.028903 -0.070689499 0.01144
0.029926 -0.070648499 0.011444
0.03091 -0.070462503 0.011444
0.031854998 -0.070143498 0.011444
0.034285001 -0.068712503 0.012147
0.034990001 -0.067785501 0.012145
0.035386998 -0.066606499 0.012141
0.035797998 -0.065162502 0.012131
0.036447 -0.064294502 0.012131
0.037184 -0.063589498 0.012133
0.037935998 -0.062886499 0.012133
0.038796 -0.061942499 0.012133
0.03943 -0.061157499 0.012133
0.039995998 -0.060328498 0.012131
0.040375002 -0.059696499 0.012129
0.040832002 -0.058794498 0.012124
0.041203 -0.057873499 0.01212
0.041359998 -0.057391498 0.01212
0.041607 -0.056420501 0.012116
0.041792002 -0.055423498 0.012106
0.041894 -0.054401498 0.012106
0.041933 -0.053726502 0.012098
0.041854002 -0.052722499 0.012091
0.041715998 -0.051725499 0.012089
0.041630998 -0.050729498 0.012081
0.041708 -0.049739499 0.012077
0.041813999 -0.049227498 0.012071
0.041963998 -0.048228499 0.012067
0.042002998 -0.047727499 0.012066
0.042001002 -0.046726499 0.012062
0.041924998 -0.045725498 0.012052
0.041793998 -0.044721499 0.012046
0.041644 -0.043947499 0.01204
0.041444998 -0.042967498 0.012033
0.041211002 -0.041988499 0.012025
0.040925 -0.041022498 0.012019
0.040546 -0.040090501 0.012013
0.040205002 -0.039153501 0.012004
0.039857 -0.038211498 0.011994
0.039508 -0.037270501 0.01199
0.039152 -0.036321498 0.011984
0.038702998 -0.035391498 0.011975
0.038128 -0.034516498 0.011961
0.037462998 -0.0336635 0.011955
0.037029002 -0.032757498 0.011949
0.038910002 -0.026709501 0.011918
0.039182998 -0.0257055 0.011914
0.039421 -0.024713499 0.011911
0.039600998 -0.023718501 0.011905
0.039739002 -0.0227925 0.011901
0.039857 -0.021720501 0.011895
0.039918002 -0.020721501 0.011891
0.033898 0.034683499 0.011519
0.033681002 0.0356635 0.011514
0.033541001 0.036665499 0.011508
0.033388 0.0376665 0.0115
0.033171002 0.0387545 0.011492
0.032876 0.0397375 0.011485
0.032481 0.0406585 0.011477
0.032317001 0.040993501 0.011477
0.031814002 0.0418805 0.011469
0.031225 0.0427025 0.011459
0.030591 0.043480501 0.01145
0.029891999 0.0441905 0.011442
0.029141 0.044852499 0.011434
0.028318999 0.045442499 0.011426
0.027358999 0.046016499 0.011421
0.026457001 0.046448499 0.011411
0.025498999 0.0467945 0.011401
0.024507999 0.0470655 0.011395
0.023404 0.0472725 0.011388
0.022406001 0.047348499 0.011386
0.021368001 0.047364499 0.011378
0.020992 0.047361501 0.011376
0.019994 0.047332499 0.01137
0.018990001 0.0473065 0.011363
0.017992999 0.0472745 0.011361
0.016996 0.047270499 0.011355
0.015995 0.047240499 0.011347
0.01499 0.0471895 0.011345
0.014004 0.047185499 0.011335
0.013021 0.0471505 0.011332
0.012019 0.0470815 0.011326
0.011029 0.047028501 0.011322
0.0098390002 0.046967499 0.011316
0.0090330001 0.0469185 0.01131
0.0080220001 0.046882499 0.011304
0.0070400001 0.0469965 0.011297
0.0058220001 0.047130499 0.011293
0.0050220001 0.0471365 0.011289
0.0040279999 0.0471895 0.011279
0.003021 0.047201499 0.011277
0.0020330001 0.047051501 0.011273
0.00156 0.046928499 0.01127
-0.0035979999 0.045125499 0.011252
-0.0044900002 0.044682499 0.011246
-0.0053440002 0.0441605 0.011244
-0.0061559998 0.043568499 0.011248
-0.0067659998 0.0430285 0.011244
-0.0074740001 0.0423165 0.011246
-0.0081169996 0.041545499 0.011248
-0.0086829998 0.0406905 0.01125
-0.0091549996 0.039772499 0.011254
-0.0093099996 0.039407499 0.011252
-0.0096399998 0.038454499 0.011256
-0.0099219996 0.0374665 0.011262
-0.010154 0.036456499 0.011266
-0.010224 0.036121499 0.011264
-0.010426 0.0351355 0.01127
-0.010603 0.034148499 0.011273
-0.010728 0.0331375 0.011281
-0.01078 0.0322235 0.011283
-0.010759 0.031241501 0.011289
-0.010603 0.030242501 0.011297
-0.010387 0.0292495 0.011304
-0.010131 0.0280715 0.011314
-0.010077 0.027050501 0.011322
-0.010062 0.026246499 0.011324
-0.0099609997 0.0252445 0.011335
-0.0097979996 0.0242525 0.011339
-0.0095319999 0.023047499 0.011347
-0.0092559997 0.022085501 0.011353
-0.0089149997 0.021125499 0.011361
-0.0086200004 0.020367499 0.011368
-0.0081540002 0.019267499 0.011376
-0.0078220004 0.018522499 0.011386
-0.0073350002 0.017422499 0.011394
-0.006999 0.016703499 0.011403
-0.00666 0.0155575 0.011411
-0.0065759998 0.0145185 0.011417
-0.0065680002 0.0142475 0.011419
-0.0065370002 0.0132415 0.011423
-0.0065049999 0.0122415 0.011432
-0.0064980001 0.0112415 0.011438
-0.010759 -0.0057605002 0.01151
-0.010926 -0.0067595001 0.011517
-0.01098 -0.0071434998 0.011517
-0.011075 -0.0077665001 0.011521
-0.0112 -0.0087575 0.011527
-0.011255 -0.0091255 0.011529
-0.011378 -0.0101275 0.011533
-0.011448 -0.0107425 0.011539
-0.011557 -0.0117325 0.011545
-0.01158 -0.0121175 0.011545
-0.010635 -0.025867499 0.011636
-0.010385 -0.026833501 0.011641
-0.010116 -0.0277975 0.011647
-0.0098289996 -0.0287605 0.011655
-0.0095119998 -0.0296895 0.011667
-0.0076990002 -0.0346945 0.011707
-0.0076120002 -0.035731498 0.011713
-0.010666 -0.043433499 0.011742
-0.010896 -0.044407502 0.011748
-0.011106 -0.045378499 0.011752
-0.011262 -0.046379499 0.011758
-0.011322 -0.046735499 0.011758
-0.011471 -0.047732498 0.011763
-0.011585 -0.048726499 0.011765
-0.011657 -0.049723499 0.011773
-0.011688 -0.050717499 0.011783
-0.011688 -0.051710501 0.011789
-0.011663 -0.052715499 0.011794
-0.011611 -0.053721499 0.011802
-0.011595 -0.054729499 0.011806
-0.011688 -0.055730499 0.011814
-0.011796 -0.056720499 0.011816
0.013653 -0.070736498 0.01205
0.014415 -0.070067503 0.01205
0.015231 -0.069564499 0.01205
0.016255001 -0.069360502 0.012062
0.017414 -0.069360502 0.012067
0.018615 -0.069426499 0.012083
0.019848 -0.069560498 0.012093
0.02108 -0.069757499 0.0121
0.022375001 -0.070008501 0.012104
0.022991 -0.070127502 0.012106
0.023994001 -0.070281498 0.012118
0.024989 -0.070467502 0.012122
0.025992 -0.070635498 0.012129
0.026837001 -0.070735499 0.012135
0.027905 -0.070825502 0.012135
0.028946999 -0.070839502 0.012137
0.029956 -0.070759498 0.012139
0.030925 -0.070540503 0.012139
0.031861 -0.070191503 0.012145
0.032690998 -0.069760501 0.012143
0.033557002 -0.069254503 0.012149
0.034364998 -0.068722501 0.012848
0.035 -0.067846499 0.012848
0.035406999 -0.066643499 0.01284
0.035828002 -0.065249503 0.012834
0.036479 -0.064381503 0.012836
0.037223 -0.063655503 0.012836
0.037965 -0.062941499 0.012834
